ply
format ascii 1.0
element vertex 1266
property float32 x
property float32 y
property float32 z
property uchar red
property uchar green
property uchar blue
end_header
0.321662 0.425433 0.225697 82 108 58
0.097176 0.689608 0.960050 25 176 245
0.062025 0.687703 0.641012 16 175 163
0.452140 0.688877 0.086932 115 176 22
0.636662 0.683778 0.813280 162 174 207
0.031388 0.165242 0.417842 8 42 107
0.360094 0.302552 0.778448 92 77 199
0.175129 0.148388 0.274775 45 38 70
0.214529 0.135045 0.359361 55 34 92
0.829278 0.448161 0.932685 211 114 238
0.468762 0.743434 0.643719 120 190 164
0.523228 0.088670 0.025711 133 23 7
0.936683 0.194628 0.245157 239 50 63
0.693776 0.943606 0.843908 177 241 215
0.582018 0.646418 0.396012 148 165 101
0.988759 0.778350 0.291385 252 198 74
0.796985 0.251699 0.372065 203 64 95
0.847733 0.775752 0.308234 216 198 79
0.594284 0.778509 0.589040 152 199 150
0.678630 0.579692 0.429496 173 148 110
0.829424 0.094312 0.819898 212 24 209
0.106540 0.210001 0.237511 27 54 61
0.221284 0.338097 0.966011 56 86 246
0.200178 0.395646 0.557599 51 101 142
0.842569 0.389571 0.863738 215 99 220
0.775391 0.215274 0.839630 198 55 214
0.904860 0.654593 0.525132 231 167 134
0.104935 0.945500 0.183225 27 241 47
0.881497 0.301176 0.429021 225 77 109
0.664289 0.169133 0.272933 169 43 70
0.587359 0.616935 0.007072 150 157 2
0.650808 0.603958 0.273473 166 154 70
0.856178 0.724695 0.353921 218 185 90
0.066799 0.094957 0.140744 17 24 36
0.551634 0.076122 0.095399 141 19 24
0.943437 0.782157 0.129417 241 199 33
0.695822 0.772903 0.337057 177 197 86
0.062915 0.953427 0.214439 16 243 55
0.324966 0.494643 0.350000 83 126 89
0.846332 0.492081 0.658796 216 125 168
0.450271 0.749339 0.143404 115 191 37
0.089480 0.324405 0.933818 23 83 238
0.590014 0.832466 0.647881 150 212 165
0.464495 0.851584 0.437413 118 217 112
0.479730 0.152072 0.192943 122 39 49
0.506689 0.988834 0.700727 129 252 179
0.198744 0.965215 0.870918 51 246 222
0.463189 0.383492 0.238026 118 98 61
0.642880 0.242119 0.512119 164 62 131
0.834448 0.741222 0.821481 213 189 209
0.514653 0.147975 0.780200 131 38 199
0.591251 0.453101 0.918046 151 116 234
0.594689 0.987051 0.715957 152 252 183
0.759084 0.395782 0.081906 194 101 21
0.734551 0.736571 0.321692 187 188 82
0.607620 0.434586 0.491245 155 111 125
0.552385 0.655990 0.775902 141 167 198
0.270325 0.664033 0.006497 69 169 2
0.337686 0.405238 0.487294 86 103 124
0.807620 0.511894 0.906753 206 131 231
0.282903 0.395757 0.423598 72 101 108
0.646988 0.729098 0.591667 165 186 151
0.498590 0.782506 0.883665 127 200 225
0.064057 0.763495 0.584546 16 195 149
0.547977 0.789197 0.869508 140 201 222
0.802162 0.840166 0.908086 205 214 232
0.966501 0.335281 0.080523 246 85 21
0.274022 0.938643 0.935377 70 239 239
0.113936 0.057691 0.140177 29 15 36
0.601906 0.017757 0.051032 153 5 13
0.508707 0.049132 0.090785 130 13 23
0.952238 0.532708 0.743931 243 136 190
0.947699 0.368147 0.490494 242 94 125
0.047005 0.105978 0.598964 12 27 153
0.388484 0.262336 0.510967 99 67 130
0.933574 0.233049 0.728709 238 59 186
0.999122 0.259142 0.983986 255 66 251
0.794163 0.179832 0.977119 203 46 249
0.365989 0.528830 0.622024 93 135 159
0.591983 0.101926 0.630665 151 26 161
0.401824 0.065031 0.476126 102 17 121
0.504332 0.100364 0.761885 129 26 194
0.296986 0.720875 0.846812 76 184 216
0.170057 0.695364 0.597393 43 177 152
0.438152 0.228839 0.990881 112 58 253
0.345141 0.454551 0.224098 88 116 57
0.754561 0.919419 0.028238 192 234 7
0.552245 0.832455 0.639570 141 212 163
0.841569 0.722282 0.015681 215 184 4
0.095813 0.322433 0.319876 24 82 82
0.064025 0.772479 0.332987 16 197 85
0.735765 0.748343 0.408248 188 191 104
0.327222 0.516133 0.026062 83 132 7
0.662251 0.070307 0.679962 169 18 173
0.229490 0.452250 0.748736 59 115 191
0.304708 0.834487 0.954793 78 213 243
0.159641 0.406372 0.555703 41 104 142
0.440319 0.330561 0.470175 112 84 120
0.672071 0.096840 0.670983 171 25 171
0.007471 0.710628 0.048579 2 181 12
0.878122 0.013868 0.534973 224 4 136
0.095111 0.350144 0.214663 24 89 55
0.397502 0.304119 0.589709 101 78 150
0.684248 0.596252 0.487866 174 152 124
0.153341 0.779180 0.371196 39 199 95
0.778667 0.619230 0.192690 199 158 49
0.123038 0.217642 0.650635 31 55 166
0.289864 0.258997 0.208745 74 66 53
0.651942 0.940685 0.511899 166 240 131
0.941460 0.063894 0.046671 240 16 12
0.661071 0.743453 0.788222 169 190 201
0.663080 0.423210 0.458514 169 108 117
0.703485 0.001068 0.318012 179 0 81
0.623020 0.735170 0.303318 159 187 77
0.154254 0.168525 0.102475 39 43 26
0.736919 0.366195 0.827521 188 93 211
0.710047 0.095960 0.568909 181 24 145
0.762270 0.604155 0.742287 194 154 189
0.688381 0.052492 0.592446 176 13 151
0.485024 0.707609 0.775052 124 180 198
0.444711 0.468850 0.955077 113 120 244
0.748298 0.244384 0.999471 191 62 255
0.797701 0.731400 0.888290 203 187 227
0.985250 0.893851 0.298768 251 228 76
0.415414 0.031222 0.116770 106 8 30
0.515029 0.615133 0.355851 131 157 91
0.663998 0.974988 0.532534 169 249 136
0.857336 0.464444 0.783757 219 118 200
0.037745 0.999654 0.958386 10 255 244
0.113500 0.494988 0.478390 29 126 122
0.697095 0.047780 0.152913 178 12 39
0.752927 0.669325 0.382813 192 171 98
0.209907 0.277846 0.393711 54 71 100
0.421983 0.550463 0.192197 108 140 49
0.405782 0.261566 0.777988 103 67 198
0.181385 0.685420 0.813204 46 175 207
0.429551 0.085440 0.339128 110 22 86
0.617437 0.489675 0.944214 157 125 241
0.940638 0.551318 0.234023 240 141 60
0.672093 0.136831 0.899345 171 35 229
0.163907 0.726398 0.091443 42 185 23
0.225679 0.522868 0.429887 58 133 110
0.665728 0.224082 0.447934 170 57 114
0.875358 0.855619 0.783947 223 218 200
0.871904 0.937396 0.729698 222 239 186
0.913106 0.964830 0.740281 233 246 189
0.661194 0.139659 0.110842 169 36 28
0.168111 0.904471 0.289850 43 231 74
0.556520 0.472571 0.218314 142 121 56
0.814967 0.206499 0.494113 208 53 126
0.941677 0.253815 0.929713 240 65 237
0.023891 0.214085 0.587869 6 55 150
0.790645 0.989698 0.554148 202 252 141
0.644459 0.213762 0.114020 164 55 29
0.392680 0.662712 0.742627 100 169 189
0.039669 0.345119 0.147902 10 88 38
0.421329 0.460773 0.773773 107 117 197
0.356075 0.836857 0.328280 91 213 84
0.986313 0.455317 0.224568 252 116 57
0.296649 0.455123 0.026976 76 116 7
0.319855 0.779674 0.461650 82 199 118
0.548499 0.701503 0.221819 140 179 57
0.313853 0.245079 0.151352 80 62 39
0.722698 0.921274 0.483739 184 235 123
0.290656 0.516379 0.340517 74 132 87
0.086001 0.152777 0.526189 22 39 134
0.817343 0.504847 0.002804 208 129 1
0.730380 0.965888 0.355113 186 246 91
0.303370 0.080583 0.130053 77 21 33
0.936337 0.089738 0.151067 239 23 39
0.610014 0.188394 0.446404 156 48 114
0.662211 0.349730 0.632188 169 89 161
0.817218 0.990487 0.580385 208 253 148
0.105138 0.500939 0.108623 27 128 28
0.142808 0.243301 0.383412 36 62 98
0.085173 0.104004 0.439944 22 27 112
0.706701 0.123503 0.490291 180 31 125
0.845476 0.040348 0.773468 216 10 197
0.305967 0.039099 0.338679 78 10 86
0.312205 0.600807 0.828796 80 153 211
0.232557 0.180171 0.066648 59 46 17
0.463985 0.408157 0.279877 118 104 71
0.381199 0.794351 0.619544 97 203 158
0.199020 0.431525 0.110308 51 110 28
0.717560 0.741718 0.345914 183 189 88
0.794105 0.479812 0.620354 202 122 158
0.529504 0.660836 0.954010 135 169 243
0.023117 0.515390 0.583745 6 131 149
0.248339 0.641699 0.886522 63 164 226
0.803347 0.561368 0.999223 205 143 255
0.773512 0.140779 0.571304 197 36 146
0.895042 0.363011 0.442533 228 93 113
0.312180 0.078953 0.188467 80 20 48
0.056866 0.813418 0.980393 15 207 250
0.379436 0.774758 0.718737 97 198 183
0.664108 0.116419 0.433345 169 30 111
0.239961 0.150079 0.133582 61 38 34
0.938757 0.096162 0.473239 239 25 121
0.435258 0.362591 0.769078 111 92 196
0.570979 0.266712 0.415098 146 68 106
0.470435 0.551874 0.005695 120 141 1
0.874843 0.031103 0.194840 223 8 50
0.853571 0.896116 0.635853 218 229 162
0.279590 0.090952 0.185251 71 23 47
0.440395 0.393737 0.740033 112 100 189
0.350404 0.971262 0.993633 89 248 253
0.087089 0.891148 0.748079 22 227 191
0.896013 0.736253 0.039880 228 188 10
0.545206 0.111033 0.412346 139 28 105
0.971747 0.779666 0.499976 248 199 127
0.727596 0.676381 0.967978 186 172 247
0.097037 0.322081 0.906855 25 82 231
0.758404 0.475037 0.706860 193 121 180
0.900492 0.209496 0.336895 230 53 86
0.541823 0.375103 0.207854 138 96 53
0.149114 0.032256 0.545209 38 8 139
0.845843 0.705838 0.275223 216 180 70
0.908459 0.102792 0.016138 232 26 4
0.630766 0.877236 0.955411 161 224 244
0.357039 0.830785 0.919760 91 212 235
0.062151 0.877932 0.095136 16 224 24
0.468901 0.888272 0.808863 120 227 206
0.442362 0.545260 0.165166 113 139 42
0.104355 0.939018 0.200517 27 239 51
0.299900 0.762832 0.338121 76 195 86
0.523443 0.718184 0.665880 133 183 170
0.238118 0.191456 0.488179 61 49 124
0.066123 0.727607 0.145382 17 186 37
0.961819 0.734210 0.031174 245 187 8
0.692075 0.412702 0.850800 176 105 217
0.667612 0.398197 0.729010 170 102 186
0.018392 0.739140 0.767363 5 188 196
0.591423 0.688814 0.289800 151 176 74
0.397693 0.061751 0.917412 101 16 234
0.876485 0.739026 0.547474 224 188 140
0.473018 0.600348 0.808632 121 153 206
0.362545 0.170916 0.713077 92 44 182
0.739078 0.303228 0.063262 188 77 16
0.989379 0.416491 0.476809 252 106 122
0.491867 0.659543 0.819249 125 168 209
0.121399 0.545261 0.223928 31 139 57
0.508441 0.889104 0.028908 130 227 7
0.172878 0.461370 0.747749 44 118 191
0.088829 0.930368 0.599153 23 237 153
0.902241 0.130830 0.307803 230 33 78
0.269276 0.688385 0.570704 69 176 146
0.280665 0.038708 0.000680 72 10 0
0.531541 0.589982 0.439285 136 150 112
0.080971 0.851765 0.268832 21 217 69
0.570218 0.226901 0.378341 145 58 96
0.391185 0.854732 0.481189 100 218 123
0.321822 0.486108 0.771617 82 124 197
0.303232 0.244872 0.739199 77 62 188
0.357332 0.709070 0.895137 91 181 228
0.324214 0.565854 0.190095 83 144 48
0.949858 0.504566 0.891372 242 129 227
0.058142 0.350082 0.180633 15 89 46
0.438918 0.956413 0.710287 112 244 181
0.099871 0.655671 0.087856 25 167 22
0.626282 0.699725 0.138870 160 178 35
0.143870 0.310985 0.486076 37 79 124
0.218414 0.778510 0.490657 56 199 125
0.902377 0.742666 0.555128 230 189 142
0.855705 0.428028 0.605515 218 109 154
0.169963 0.620292 0.379927 43 158 97
0.729691 0.737591 0.069414 186 188 18
0.928573 0.475752 0.109544 237 121 28
0.282722 0.904115 0.918046 72 231 234
0.763465 0.179211 0.520813 195 46 133
0.643514 0.166045 0.807072 164 42 206
0.893696 0.076468 0.678061 228 19 173
0.840730 0.296705 0.559647 214 76 143
0.816570 0.340610 0.911347 208 87 232
0.425076 0.894631 0.852726 108 228 217
0.436630 0.200926 0.226055 111 51 58
0.851584 0.440022 0.821557 217 112 209
0.244970 0.408086 0.718748 62 104 183
0.326979 0.525835 0.172563 83 134 44
0.017855 0.632026 0.935923 5 161 239
0.403165 0.522516 0.812809 103 133 207
0.251678 0.527758 0.241338 64 135 62
0.983745 0.843477 0.301367 251 215 77
0.877970 0.842002 0.829436 224 215 212
0.210810 0.270605 0.205847 54 69 52
0.129538 0.489864 0.537284 33 125 137
0.887248 0.699972 0.971039 226 178 248
0.512903 0.406140 0.056749 131 104 14
0.658523 0.561472 0.497880 168 143 127
0.581230 0.690068 0.375392 148 176 96
0.889885 0.553612 0.738194 227 141 188
0.843928 0.513086 0.363850 215 131 93
0.248333 0.659562 0.149987 63 168 38
0.364631 0.676094 0.042667 93 172 11
0.507942 0.643533 0.281690 130 164 72
0.887163 0.250787 0.967232 226 64 247
0.049669 0.754147 0.927733 13 192 237
0.307942 0.889639 0.452271 79 227 115
0.512832 0.646181 0.993533 131 165 253
0.659836 0.458614 0.383786 168 117 98
0.708218 0.847035 0.840232 181 216 214
0.634963 0.127414 0.919333 162 32 234
0.485801 0.605376 0.544383 124 154 139
0.169737 0.902544 0.870943 43 230 222
0.140775 0.416180 0.859927 36 106 219
0.942940 0.018684 0.959589 240 5 245
0.114424 0.574411 0.598242 29 146 153
0.842494 0.606271 0.582691 215 155 149
0.536260 0.090682 0.700727 137 23 179
0.498721 0.519875 0.675588 127 133 172
0.537231 0.478794 0.957421 137 122 244
0.985575 0.559625 0.247936 251 143 63
0.330533 0.352700 0.911485 84 90 232
0.319408 0.717686 0.573427 81 183 146
0.249190 0.414903 0.936846 64 106 239
0.935004 0.797801 0.597748 238 203 152
0.028074 0.498959 0.557239 7 127 142
0.608191 0.759269 0.251420 155 194 64
0.906038 0.242938 0.960869 231 62 245
0.912665 0.423461 0.560785 233 108 143
0.930045 0.324520 0.553172 237 83 141
0.290461 0.190352 0.916215 74 49 234
0.492451 0.458517 0.338348 126 117 86
0.491115 0.862687 0.877656 125 220 224
0.319971 0.322871 0.612884 82 82 156
0.707762 0.147671 0.662436 180 38 169
0.072912 0.617031 0.134535 19 157 34
0.029917 0.863815 0.249109 8 220 64
0.387834 0.522827 0.290593 99 133 74
0.379303 0.822133 0.743562 97 210 190
0.122689 0.458191 0.983386 31 117 251
0.558049 0.377278 0.355590 142 96 91
0.716913 0.646292 0.447923 183 165 114
0.400462 0.343429 0.726839 102 88 185
0.993876 0.280648 0.825124 253 72 210
0.862127 0.120728 0.728682 220 31 186
0.739755 0.739243 0.370372 189 189 94
0.245957 0.317135 0.406856 63 81 104
0.525214 0.235497 0.046746 134 60 12
0.717027 0.405429 0.887412 183 103 226
0.817046 0.620166 0.077307 208 158 20
0.252068 0.121063 0.353818 64 31 90
0.226869 0.659228 0.369765 58 168 94
0.431044 0.197496 0.292391 110 50 75
0.639883 0.911897 0.426301 163 233 109
0.875737 0.711138 0.938531 223 181 239
0.147922 0.676100 0.282644 38 172 72
0.966810 0.979721 0.621547 247 250 158
0.346620 0.477457 0.392241 88 122 100
0.616341 0.171414 0.681772 157 44 174
0.485929 0.630167 0.982945 124 161 251
0.372277 0.802600 0.750709 95 205 191
0.661528 0.168193 0.524995 169 43 134
0.299960 0.088249 0.194194 76 23 50
0.567050 0.044338 0.921053 145 11 235
0.670028 0.469990 0.657429 171 120 168
0.689135 0.763334 0.899699 176 195 229
0.212852 0.271040 0.141481 54 69 36
0.457228 0.709395 0.934176 117 181 238
0.590790 0.224575 0.305335 151 57 78
0.025153 0.034938 0.614046 6 9 157
0.132803 0.202820 0.385085 34 52 98
0.544887 0.375574 0.872687 139 96 223
0.661039 0.613095 0.494356 169 156 126
0.984742 0.499267 0.021355 251 127 5
0.264602 0.006324 0.432020 67 2 110
0.098513 0.652044 0.329136 25 166 84
0.847818 0.681831 0.758107 216 174 193
0.021795 0.798195 0.440541 6 204 112
0.919513 0.826728 0.185899 234 211 47
0.484861 0.832655 0.750346 124 212 191
0.215193 0.618195 0.969804 55 158 247
0.484360 0.664754 0.676574 124 170 173
0.099582 0.578884 0.657773 25 148 168
0.073380 0.918687 0.676319 19 234 172
0.298826 0.820131 0.304293 76 209 78
0.354624 0.869936 0.507646 90 222 129
0.114081 0.632393 0.039818 29 161 10
0.528903 0.953002 0.076852 135 243 20
0.516002 0.412568 0.454602 132 105 116
0.126424 0.457585 0.550350 32 117 140
0.808681 0.934248 0.001988 206 238 1
0.697587 0.087157 0.947172 178 22 242
0.129432 0.649533 0.404629 33 166 103
0.412820 0.162857 0.098936 105 42 25
0.687002 0.667855 0.759244 175 170 194
0.488600 0.564566 0.156247 125 144 40
0.626724 0.271025 0.502375 160 69 128
0.789905 0.678348 0.206871 201 173 53
0.943741 0.007538 0.439128 241 2 112
0.801881 0.359575 0.866876 204 92 221
0.132975 0.289107 0.216737 34 74 55
0.868329 0.741476 0.823462 221 189 210
0.519926 0.220047 0.243530 133 56 62
0.147029 0.886841 0.748883 37 226 191
0.005416 0.267232 0.137210 1 68 35
0.337702 0.693857 0.927656 86 177 237
0.927321 0.691076 0.426185 236 176 109
0.705359 0.473966 0.117272 180 121 30
0.285010 0.407470 0.743628 73 104 190
0.103580 0.309408 0.962319 26 79 245
0.335797 0.795757 0.394717 86 203 101
0.577440 0.442377 0.406055 147 113 104
0.771027 0.515597 0.416395 197 131 106
0.531356 0.867794 0.191465 135 221 49
0.569806 0.389837 0.338257 145 99 86
0.009621 0.330387 0.678484 2 84 173
0.138459 0.787433 0.808898 35 201 206
0.504524 0.590492 0.348201 129 151 89
0.741405 0.280535 0.732619 189 72 187
0.011479 0.501061 0.754306 3 128 192
0.902515 0.545593 0.354779 230 139 90
0.608490 0.121075 0.577990 155 31 147
0.557405 0.927230 0.470516 142 236 120
0.937964 0.731364 0.719786 239 186 184
0.513255 0.554025 0.770743 131 141 197
0.816214 0.528415 0.048586 208 135 12
0.645605 0.387907 0.687322 165 99 175
0.498733 0.136142 0.836982 127 35 213
0.771945 0.190688 0.590041 197 49 150
0.658622 0.524723 0.492529 168 134 126
0.418880 0.635282 0.327046 107 162 83
0.318980 0.135738 0.781994 81 35 199
0.896874 0.836579 0.727439 229 213 185
0.147593 0.831451 0.085878 38 212 22
0.566668 0.902082 0.022598 145 230 6
0.445401 0.539132 0.116335 114 137 30
0.704103 0.409065 0.947726 180 104 242
0.936277 0.378762 0.288847 239 97 74
0.949440 0.389532 0.154389 242 99 39
0.260551 0.305750 0.594538 66 78 152
0.258429 0.279129 0.696425 66 71 178
0.326633 0.335397 0.192226 83 86 49
0.542244 0.671016 0.310594 138 171 79
0.332334 0.362577 0.335401 85 92 86
0.875843 0.333885 0.907290 223 85 231
0.585279 0.379824 0.426513 149 97 109
0.307119 0.728263 0.724455 78 186 185
0.346848 0.170763 0.068659 88 44 18
0.381438 0.792975 0.332097 97 202 85
0.981808 0.672865 0.325465 250 172 83
0.340419 0.508157 0.007817 87 130 2
0.695457 0.790376 0.081683 177 202 21
0.961865 0.582813 0.071741 245 149 18
0.285014 0.432802 0.772974 73 110 197
0.524895 0.530569 0.366638 134 135 93
0.246596 0.609328 0.362279 63 155 92
0.276830 0.118379 0.544261 71 30 139
0.615960 0.604831 0.587216 157 154 150
0.600427 0.610493 0.847587 153 156 216
0.124625 0.599866 0.683338 32 153 174
0.686078 0.720177 0.472225 175 184 120
0.506794 0.063146 0.856603 129 16 218
0.345448 0.091768 0.774334 88 23 197
0.758098 0.440145 0.375842 193 112 96
0.190296 0.710350 0.060098 49 181 15
0.813363 0.084923 0.249497 207 22 64
0.953987 0.580221 0.385031 243 148 98
0.173577 0.520797 0.302245 44 133 77
0.145155 0.869467 0.845194 37 222 216
0.355311 0.409522 0.137787 91 104 35
0.597088 0.926701 0.282934 152 236 72
0.414640 0.504110 0.036510 106 129 9
0.537993 0.193082 0.970986 137 49 248
0.495325 0.242845 0.226310 126 62 58
0.427798 0.951378 0.728956 109 243 186
0.215001 0.669590 0.111645 55 171 28
0.379103 0.843343 0.573120 97 215 146
0.852918 0.762423 0.313708 217 194 80
0.023528 0.104651 0.062156 6 27 16
0.527657 0.582463 0.103880 135 149 26
0.524646 0.373268 0.199824 134 95 51
0.400444 0.859101 0.332338 102 219 85
0.009093 0.478105 0.207314 2 122 53
0.882222 0.933278 0.860891 225 238 220
0.946659 0.028200 0.311553 241 7 79
0.965723 0.665096 0.077815 246 170 20
0.281677 0.707842 0.583809 72 180 149
0.280304 0.462975 0.341415 71 118 87
0.068362 0.244521 0.581908 17 62 148
0.146976 0.946537 0.612404 37 241 156
0.727548 0.023797 0.015312 186 6 4
0.764067 0.917201 0.254224 195 234 65
0.967173 0.994408 0.779510 247 254 199
0.681087 0.027401 0.592018 174 7 151
0.377481 0.331251 0.885499 96 84 226
0.435273 0.771928 0.080742 111 197 21
0.363879 0.985534 0.582677 93 251 149
0.351247 0.532334 0.501759 90 136 128
0.181320 0.849529 0.808275 46 217 206
0.829266 0.632110 0.618938 211 161 158
0.829143 0.769442 0.573306 211 196 146
0.350392 0.046457 0.539922 89 12 138
0.044160 0.777373 0.779290 11 198 199
0.528967 0.686760 0.334416 135 175 85
0.990304 0.630854 0.162313 253 161 41
0.102946 0.354291 0.644747 26 90 164
0.831043 0.422682 0.898400 212 108 229
0.878138 0.837221 0.958909 224 213 245
0.792471 0.397104 0.795337 202 101 203
0.795159 0.636605 0.166415 203 162 42
0.421136 0.035133 0.630017 107 9 161
0.633736 0.998767 0.455294 162 255 116
0.959837 0.000336 0.093880 245 0 24
0.515934 0.741284 0.063081 132 189 16
0.141420 0.609111 0.839193 36 155 214
0.264697 0.075879 0.980441 67 19 250
0.077655 0.091369 0.803328 20 23 205
0.200083 0.619520 0.039174 51 158 10
0.514741 0.877906 0.754329 131 224 192
0.706706 0.648309 0.644856 180 165 164
0.747858 0.670323 0.122627 191 171 31
0.884183 0.393586 0.238300 225 100 61
0.503681 0.007718 0.470667 128 2 120
0.414272 0.831030 0.457686 106 212 117
0.723740 0.913381 0.142582 185 233 36
0.783635 0.037562 0.143685 200 10 37
0.309764 0.795073 0.204354 79 203 52
0.883168 0.493380 0.339468 225 126 87
0.834661 0.281563 0.608483 213 72 155
0.408704 0.956726 0.537081 104 244 137
0.773922 0.840645 0.020700 197 214 5
0.405907 0.320952 0.066713 104 82 17
0.169976 0.040191 0.957651 43 10 244
0.476676 0.133069 0.579738 122 34 148
0.735379 0.236442 0.373540 188 60 95
0.379863 0.209667 0.964045 97 53 246
0.158423 0.402696 0.846611 40 103 216
0.448057 0.938486 0.059784 114 239 15
0.624929 0.674511 0.815272 159 172 208
0.732238 0.430919 0.279853 187 110 71
0.191791 0.712087 0.218426 49 182 56
0.374247 0.785316 0.244386 95 200 62
0.287868 0.100357 0.238518 73 26 61
0.587901 0.245246 0.189483 150 63 48
0.502895 0.468236 0.379241 128 119 97
0.376704 0.875173 0.802644 96 223 205
0.976578 0.010472 0.494270 249 3 126
0.139015 0.733232 0.739216 35 187 189
0.500713 0.813608 0.377793 128 207 96
0.668575 0.745664 0.839183 170 190 214
0.852851 0.942615 0.613771 217 240 157
0.945428 0.386443 0.962999 241 99 246
0.836238 0.376117 0.135949 213 96 35
0.516174 0.882079 0.304814 132 225 78
0.955678 0.684175 0.651878 244 174 166
0.635006 0.175391 0.544252 162 45 139
0.256136 0.483707 0.840464 65 123 214
0.785720 0.364315 0.447124 200 93 114
0.093757 0.398445 0.657093 24 102 168
0.674240 0.066493 0.504924 172 17 129
0.598236 0.217361 0.044167 153 55 11
0.178737 0.809448 0.809582 46 206 206
0.535053 0.396042 0.737093 136 101 188
0.746562 0.462237 0.725219 190 118 185
0.216318 0.651584 0.472897 55 166 121
0.592586 0.450874 0.466888 151 115 119
0.635114 0.579533 0.245057 162 148 62
0.417435 0.585552 0.444406 106 149 113
0.687811 0.914094 0.323083 175 233 82
0.592284 0.777740 0.818116 151 198 209
0.056189 0.970605 0.716246 14 248 183
0.723285 0.247175 0.016524 184 63 4
0.817072 0.833776 0.027277 208 213 7
0.112678 0.825861 0.861090 29 211 220
0.350001 0.748488 0.911853 89 191 233
0.068347 0.044737 0.311403 17 11 79
0.304412 0.364738 0.421003 78 93 107
0.109433 0.873289 0.600756 28 223 153
0.979739 0.343831 0.909522 250 88 232
0.376599 0.639081 0.484869 96 163 124
0.370278 0.353587 0.081654 94 90 21
0.736440 0.870768 0.875963 188 222 223
0.494451 0.140785 0.506524 126 36 129
0.206280 0.834180 0.862103 53 213 220
0.061924 0.773481 0.538872 16 197 137
0.517323 0.391611 0.389510 132 100 99
0.676239 0.784795 0.767641 172 200 196
0.555845 0.955161 0.156634 142 244 40
0.393339 0.362122 0.533099 100 92 136
0.520109 0.024851 0.017942 133 6 5
0.016598 0.248594 0.871989 4 63 222
0.494884 0.406728 0.403265 126 104 103
0.938559 0.019807 0.330494 239 5 84
0.284819 0.373408 0.569310 73 95 145
0.701187 0.566766 0.422298 179 145 108
0.428146 0.837325 0.488971 109 214 125
0.517501 0.842031 0.325552 132 215 83
0.703288 0.374662 0.560529 179 96 143
0.521674 0.774521 0.084087 133 198 21
0.571200 0.220676 0.118149 146 56 30
0.490209 0.182405 0.737561 125 47 188
0.363400 0.922733 0.490012 93 235 125
0.969159 0.437783 0.690285 247 112 176
0.799187 0.623119 0.777355 204 159 198
0.160172 0.922823 0.334621 41 235 85
0.139688 0.323860 0.574566 36 83 147
0.390853 0.558211 0.751543 100 142 192
0.739699 0.908865 0.692285 189 232 177
0.894277 0.926445 0.931697 228 236 238
0.356612 0.373944 0.575322 91 95 147
0.253798 0.922958 0.948447 65 235 242
0.619380 0.604990 0.516305 158 154 132
0.896068 0.807429 0.778275 228 206 198
0.447529 0.234983 0.483039 114 60 123
0.631236 0.597321 0.060732 161 152 15
0.511360 0.674436 0.046627 130 172 12
0.281189 0.672749 0.486146 72 172 124
0.552883 0.642080 0.189890 141 164 48
0.584957 0.613125 0.504281 149 156 129
0.927876 0.078450 0.300410 237 20 77
0.352719 0.520546 0.155862 90 133 40
0.346312 0.235878 0.045152 88 60 12
0.116097 0.021685 0.819211 30 6 209
0.763912 0.941138 0.346599 195 240 88
0.655180 0.110753 0.290258 167 28 74
0.204344 0.675131 0.120475 52 172 31
0.509773 0.792197 0.021136 130 202 5
0.553543 0.023371 0.863936 141 6 220
0.101349 0.406901 0.234110 26 104 60
0.980970 0.728163 0.290415 250 186 74
0.710813 0.410937 0.368028 181 105 94
0.132504 0.164528 0.208834 34 42 53
0.195936 0.248338 0.470495 50 63 120
0.310128 0.670073 0.358629 79 171 91
0.788686 0.619349 0.645635 201 158 165
0.515864 0.461177 0.501377 132 118 128
0.235152 0.640114 0.644861 60 163 164
0.135396 0.439932 0.894119 35 112 228
0.881160 0.962437 0.706192 225 245 180
0.208648 0.627894 0.893647 53 160 228
0.411379 0.949413 0.243005 105 242 62
0.812287 0.064830 0.282279 207 17 72
0.723833 0.896494 0.709881 185 229 181
0.616552 0.031379 0.513521 157 8 131
0.861808 0.224854 0.173831 220 57 44
0.841010 0.994561 0.551217 214 254 141
0.482350 0.185603 0.269457 123 47 69
0.469548 0.657525 0.185555 120 168 47
0.693564 0.887326 0.365861 177 226 93
0.757886 0.092511 0.820912 193 24 209
0.031255 0.323775 0.476258 8 83 121
0.162417 0.528881 0.772696 41 135 197
0.674122 0.831232 0.269868 172 212 69
0.331628 0.526045 0.162049 85 134 41
0.432697 0.425054 0.390117 110 108 99
0.633818 0.053753 0.025294 162 14 6
0.004672 0.405334 0.489658 1 103 125
0.496945 0.927935 0.426864 127 237 109
0.386412 0.549642 0.765628 99 140 195
0.534651 0.423011 0.962473 136 108 245
0.695066 0.607395 0.419419 177 155 107
0.784917 0.860836 0.674557 200 220 172
0.061686 0.467842 0.603691 16 119 154
0.903493 0.933366 0.845873 230 238 216
0.601446 0.790179 0.615231 153 201 157
0.712012 0.548102 0.946836 182 140 241
0.135134 0.603708 0.342124 34 154 87
0.612558 0.893538 0.208551 156 228 53
0.799240 0.144883 0.828755 204 37 211
0.806803 0.275734 0.822528 206 70 210
0.045541 0.507188 0.811972 12 129 207
0.293042 0.589919 0.407958 75 150 104
0.132143 0.865037 0.544226 34 221 139
0.001887 0.547142 0.954500 0 140 243
0.220786 0.591948 0.839046 56 151 214
0.456127 0.982144 0.941357 116 250 240
0.028624 0.108900 0.711544 7 28 181
0.872095 0.143088 0.501336 222 36 128
0.078805 0.592222 0.213327 20 151 54
0.622321 0.614744 0.990427 159 157 253
0.101091 0.824873 0.879332 26 210 224
0.433553 0.044779 0.372015 111 11 95
0.527334 0.946275 0.404902 134 241 103
0.833869 0.554494 0.342412 213 141 87
0.078028 0.183279 0.747921 20 47 191
0.574316 0.373809 0.670621 146 95 171
0.260149 0.589640 0.912702 66 150 233
0.885368 0.637459 0.473853 226 163 121
0.189933 0.547553 0.272522 48 140 69
0.055779 0.493434 0.931294 14 126 237
0.508666 0.433240 0.631785 130 110 161
0.320654 0.461178 0.773180 82 118 197
0.881120 0.826455 0.832863 225 211 212
0.921621 0.530690 0.856746 235 135 218
0.392204 0.969101 0.300551 100 247 77
0.276774 0.108671 0.795581 71 28 203
0.286037 0.723972 0.933924 73 185 238
0.163334 0.003449 0.820285 42 1 209
0.544971 0.965052 0.378875 139 246 97
0.731042 0.057899 0.601449 186 15 153
0.736524 0.195975 0.697948 188 50 178
0.812934 0.610182 0.938395 207 156 239
0.182116 0.216695 0.355950 46 55 91
0.367505 0.441094 0.146762 94 112 37
0.901351 0.532178 0.424560 230 136 108
0.917657 0.676380 0.835041 234 172 213
0.729609 0.356032 0.534009 186 91 136
0.276245 0.424385 0.835586 70 108 213
0.610375 0.465496 0.117602 156 119 30
0.937006 0.301789 0.373980 239 77 95
0.767018 0.147957 0.749376 196 38 191
0.303713 0.428391 0.697258 77 109 178
0.539724 0.000850 0.768829 138 0 196
0.548397 0.042160 0.363104 140 11 93
0.653948 0.287545 0.327317 167 73 83
0.292262 0.487445 0.038780 75 124 10
0.378229 0.465512 0.339700 96 119 87
0.793371 0.667396 0.818798 202 170 209
0.491403 0.842509 0.770221 125 215 196
0.937100 0.235949 0.222090 239 60 57
0.748438 0.910891 0.564224 191 232 144
0.579822 0.435674 0.393018 148 111 100
0.199139 0.233147 0.470585 51 59 120
0.581919 0.193672 0.010793 148 49 3
0.539417 0.983259 0.125596 138 251 32
0.198199 0.754139 0.526751 51 192 134
0.780611 0.945661 0.156051 199 241 40
0.670423 0.376083 0.246168 171 96 63
0.066121 0.812227 0.845353 17 207 216
0.066640 0.239778 0.257780 17 61 66
0.563426 0.650248 0.419362 144 166 107
0.595184 0.635044 0.323341 152 162 82
0.719230 0.565907 0.481795 183 144 123
0.464057 0.789337 0.221814 118 201 57
0.934488 0.729508 0.746457 238 186 190
0.627333 0.758866 0.230725 160 194 59
0.555946 0.506277 0.538299 142 129 137
0.698367 0.838966 0.585158 178 214 149
0.250887 0.579582 0.832402 64 148 212
0.357649 0.089558 0.562463 91 23 143
0.455057 0.031953 0.069219 116 8 18
0.787401 0.978819 0.180329 201 250 46
0.902339 0.023111 0.916261 230 6 234
0.662195 0.981051 0.659227 169 250 168
0.344705 0.523430 0.449410 88 133 115
0.979189 0.929316 0.899210 250 237 229
0.560378 0.272189 0.280268 143 69 71
0.342731 0.149901 0.013173 87 38 3
0.618067 0.535431 0.263927 158 137 67
0.192592 0.901177 0.838550 49 230 214
0.686685 0.240767 0.897239 175 61 229
0.745516 0.400076 0.805421 190 102 205
0.998648 0.043008 0.100902 255 11 26
0.184071 0.568417 0.645154 47 145 165
0.029354 0.886924 0.677417 7 226 173
0.230727 0.552311 0.539519 59 141 138
0.111596 0.477097 0.020242 28 122 5
0.587592 0.694310 0.117519 150 177 30
0.255438 0.273109 0.518821 65 70 132
0.100555 0.364198 0.581775 26 93 148
0.597704 0.599602 0.609648 152 153 155
0.725147 0.687672 0.813215 185 175 207
0.611829 0.310584 0.185257 156 79 47
0.695853 0.486355 0.840162 177 124 214
0.521475 0.448557 0.083087 133 114 21
0.642854 0.260192 0.538086 164 66 137
0.641025 0.576733 0.120735 163 147 31
0.018309 0.473004 0.910927 5 121 232
0.724587 0.091352 0.866160 185 23 221
0.346893 0.971622 0.838744 88 248 214
0.734794 0.701786 0.364433 187 179 93
0.383426 0.579925 0.917861 98 148 234
0.416068 0.049010 0.773385 106 12 197
0.288874 0.286234 0.083276 74 73 21
0.376614 0.958667 0.012995 96 244 3
0.666092 0.230071 0.111247 170 59 28
0.940920 0.761637 0.165050 240 194 42
0.045706 0.812031 0.767632 12 207 196
0.115241 0.058158 0.762531 29 15 194
0.310507 0.282830 0.038877 79 72 10
0.190300 0.070222 0.556858 49 18 142
0.091963 0.135768 0.734431 23 35 187
0.053608 0.064116 0.860974 14 16 220
0.445549 0.281997 0.802946 114 72 205
0.430191 0.419805 0.682742 110 107 174
0.008744 0.711211 0.933374 2 181 238
0.803323 0.777242 0.579608 205 198 148
0.252089 0.015446 0.370955 64 4 95
0.069615 0.983761 0.185870 18 251 47
0.928948 0.884535 0.408980 237 226 104
0.776386 0.287182 0.666174 198 73 170
0.456483 0.076492 0.140732 116 20 36
0.669173 0.017465 0.467420 171 4 119
0.305703 0.717746 0.493224 78 183 126
0.602511 0.033343 0.402745 154 9 103
0.668568 0.950770 0.461001 170 242 118
0.957230 0.070529 0.328193 244 18 84
0.881340 0.519121 0.370124 225 132 94
0.029180 0.220582 0.041530 7 56 11
0.692964 0.420064 0.807276 177 107 206
0.252806 0.500948 0.160044 64 128 41
0.042950 0.487093 0.716373 11 124 183
0.295728 0.245882 0.478220 75 63 122
0.093168 0.718940 0.969114 24 183 247
0.697941 0.659773 0.507056 178 168 129
0.290468 0.984342 0.237576 74 251 61
0.051755 0.870754 0.522343 13 222 133
0.042794 0.015821 0.160702 11 4 41
0.983413 0.453492 0.698397 251 116 178
0.048421 0.014360 0.203011 12 4 52
0.443112 0.605252 0.780789 113 154 199
0.570371 0.172343 0.036973 145 44 9
0.615028 0.147034 0.986838 157 37 252
0.344325 0.773120 0.453839 88 197 116
0.910132 0.866223 0.210989 232 221 54
0.180424 0.417919 0.516818 46 107 132
0.304208 0.152487 0.528083 78 39 135
0.729435 0.460508 0.854341 186 117 218
0.075751 0.460246 0.504188 19 117 129
0.083095 0.956754 0.657011 21 244 168
0.727765 0.415375 0.916513 186 106 234
0.233468 0.342398 0.325008 60 87 83
0.401438 0.036757 0.028030 102 9 7
0.910294 0.701940 0.077023 232 179 20
0.055897 0.969740 0.237469 14 247 61
0.237756 0.111769 0.019858 61 29 5
0.116774 0.359835 0.229658 30 92 59
0.785706 0.210601 0.158774 200 54 40
0.749269 0.883418 0.712176 191 225 182
0.354194 0.411128 0.886727 90 105 226
0.914150 0.550350 0.485518 233 140 124
0.958140 0.519552 0.082686 244 132 21
0.786530 0.888731 0.327859 201 227 84
0.296512 0.299556 0.000716 76 76 0
0.630917 0.033908 0.836559 161 9 213
0.269128 0.823401 0.648589 69 210 165
0.166679 0.055934 0.495790 43 14 126
0.527068 0.724885 0.406428 134 185 104
0.301778 0.926260 0.909839 77 236 232
0.503112 0.387602 0.868089 128 99 221
0.103302 0.785945 0.022333 26 200 6
0.550848 0.134602 0.159626 140 34 41
0.006141 0.533806 0.666853 2 136 170
0.305548 0.221877 0.584953 78 57 149
0.962657 0.932232 0.081064 245 238 21
0.452635 0.118173 0.274948 115 30 70
0.431988 0.839596 0.261652 110 214 67
0.676835 0.848224 0.862493 173 216 220
0.252608 0.870287 0.757226 64 222 193
0.330690 0.576140 0.311227 84 147 79
0.018825 0.497325 0.674713 5 127 172
0.924595 0.746697 0.113146 236 190 29
0.383056 0.290917 0.406978 98 74 104
0.434995 0.330705 0.420655 111 84 107
0.395985 0.068417 0.102774 101 17 26
0.000246 0.610376 0.630019 0 156 161
0.594818 0.160067 0.357131 152 41 91
0.157901 0.785007 0.184526 40 200 47
0.974453 0.712708 0.728361 248 182 186
0.657333 0.478543 0.829977 168 122 212
0.542063 0.647108 0.891840 138 165 227
0.347042 0.350014 0.773102 88 89 197
0.953908 0.117918 0.306722 243 30 78
0.766559 0.249807 0.308910 195 64 79
0.837950 0.583134 0.454706 214 149 116
0.843859 0.522229 0.749926 215 133 191
0.992386 0.819769 0.005343 253 209 1
0.774760 0.722897 0.221646 198 184 57
0.390999 0.249148 0.378744 100 64 97
0.146345 0.124230 0.940559 37 32 240
0.275799 0.881779 0.360932 70 225 92
0.731108 0.511574 0.575791 186 130 147
0.107967 0.906313 0.610785 28 231 156
0.087045 0.984613 0.621505 22 251 158
0.148568 0.260725 0.994766 38 66 254
0.391017 0.275871 0.719611 100 70 184
0.386467 0.603654 0.258907 99 154 66
0.783641 0.623750 0.636478 200 159 162
0.114512 0.271857 0.598390 29 69 153
0.584006 0.409971 0.255153 149 105 65
0.175184 0.446378 0.897729 45 114 229
0.178446 0.429104 0.613937 46 109 157
0.309008 0.020577 0.892211 79 5 228
0.910452 0.630866 0.170109 232 161 43
0.164428 0.883462 0.902823 42 225 230
0.038884 0.045926 0.107961 10 12 28
0.567569 0.508452 0.725220 145 130 185
0.092000 0.789354 0.853729 23 201 218
0.214223 0.842475 0.219995 55 215 56
0.460418 0.805437 0.109314 117 205 28
0.209927 0.474201 0.675705 54 121 172
0.144115 0.030854 0.984846 37 8 251
0.196079 0.139036 0.594317 50 35 152
0.001006 0.055795 0.074447 0 14 19
0.654648 0.148690 0.548898 167 38 140
0.758180 0.033986 0.986155 193 9 251
0.348763 0.883038 0.192151 89 225 49
0.404800 0.992262 0.927430 103 253 236
0.324865 0.167213 0.219269 83 43 56
0.470623 0.384259 0.183103 120 98 47
0.127791 0.262102 0.291984 33 67 74
0.186049 0.894826 0.133503 47 228 34
0.919091 0.711486 0.901707 234 181 230
0.875191 0.386640 0.698212 223 99 178
0.620189 0.201786 0.638570 158 51 163
0.488155 0.276363 0.413026 124 70 105
0.650181 0.635042 0.319172 166 162 81
0.364691 0.648750 0.758790 93 165 193
0.797225 0.724790 0.007979 203 185 2
0.900106 0.931146 0.218918 230 237 56
0.686581 0.362265 0.967693 175 92 247
0.609913 0.812744 0.835341 156 207 213
0.736370 0.422665 0.083853 188 108 21
0.767989 0.536277 0.949341 196 137 242
0.780522 0.256214 0.943844 199 65 241
0.874289 0.563907 0.444982 223 144 113
0.418357 0.303592 0.808915 107 77 206
0.390663 0.679494 0.734024 100 173 187
0.869900 0.510662 0.061717 222 130 16
0.040551 0.896552 0.926453 10 229 236
0.895149 0.355688 0.961318 228 91 245
0.986753 0.057332 0.842714 252 15 215
0.072311 0.404858 0.466535 18 103 119
0.328206 0.525142 0.436474 84 134 111
0.555354 0.602068 0.794842 142 154 203
0.207356 0.834456 0.403635 53 213 103
0.610894 0.324574 0.061456 156 83 16
0.980916 0.885871 0.464313 250 226 118
0.964160 0.966417 0.660935 246 246 169
0.316543 0.267189 0.155243 81 68 40
0.979417 0.136995 0.921815 250 35 235
0.255515 0.333490 0.596057 65 85 152
0.446305 0.985473 0.850490 114 251 217
0.937662 0.275515 0.289259 239 70 74
0.332248 0.197072 0.146185 85 50 37
0.519728 0.720356 0.352039 133 184 90
0.611449 0.463874 0.563565 156 118 144
0.338981 0.492068 0.693724 86 125 177
0.591643 0.073652 0.308258 151 19 79
0.223161 0.679866 0.928785 57 173 237
0.348780 0.935621 0.668145 89 239 170
0.802320 0.894045 0.793151 205 228 202
0.391801 0.564061 0.773474 100 144 197
0.641648 0.901071 0.726357 164 230 185
0.392797 0.074833 0.489664 100 19 125
0.144415 0.648345 0.715869 37 165 183
0.388254 0.869405 0.965307 99 222 246
0.981564 0.730229 0.019371 250 186 5
0.929497 0.926106 0.456028 237 236 116
0.694635 0.212782 0.959692 177 54 245
0.530479 0.137243 0.298532 135 35 76
0.688865 0.565302 0.162925 176 144 42
0.068939 0.249821 0.493392 18 64 126
0.970456 0.458608 0.262385 247 117 67
0.806448 0.803715 0.308348 206 205 79
0.796559 0.908372 0.200698 203 232 51
0.941060 0.453563 0.410750 240 116 105
0.932611 0.273675 0.669673 238 70 171
0.847057 0.707982 0.121205 216 181 31
0.052009 0.883749 0.010500 13 225 3
0.087291 0.707628 0.069769 22 180 18
0.989988 0.300345 0.230201 252 77 59
0.936118 0.855522 0.673433 239 218 172
0.694971 0.407475 0.594334 177 104 152
0.769395 0.986549 0.366895 196 252 94
0.537435 0.989784 0.729398 137 252 186
0.770060 0.388851 0.920736 196 99 235
0.864758 0.438348 0.910592 221 112 232
0.739481 0.546493 0.726201 189 139 185
0.917781 0.951726 0.382137 234 243 97
0.053842 0.255095 0.549850 14 65 140
0.928287 0.974046 0.714840 237 248 182
0.889646 0.430395 0.792602 227 110 202
0.407963 0.104307 0.925536 104 27 236
0.879433 0.301643 0.889084 224 77 227
0.779177 0.963696 0.500276 199 246 128
0.965700 0.157072 0.368372 246 40 94
0.505398 0.099914 0.770055 129 25 196
0.422384 0.676795 0.839936 108 173 214
0.641348 0.410564 0.715015 164 105 182
0.910042 0.376439 0.087216 232 96 22
0.326858 0.977761 0.677055 83 249 173
0.341150 0.238038 0.669594 87 61 171
0.981297 0.861975 0.099564 250 220 25
0.609479 0.828131 0.935911 155 211 239
0.888867 0.466010 0.298664 227 119 76
0.352836 0.244079 0.809103 90 62 206
0.373007 0.407832 0.876429 95 104 223
0.447885 0.750013 0.495117 114 191 126
0.458038 0.045633 0.957555 117 12 244
0.323073 0.367586 0.980934 82 94 250
0.271470 0.542926 0.306475 69 138 78
0.070685 0.670162 0.758858 18 171 194
0.609154 0.492835 0.329147 155 126 84
0.859657 0.281139 0.384820 219 72 98
0.294942 0.438650 0.266992 75 112 68
0.983735 0.936089 0.497135 251 239 127
0.396068 0.404345 0.656646 101 103 167
0.849058 0.605303 0.362631 217 154 92
0.326135 0.202231 0.321745 83 52 82
0.967989 0.060744 0.812533 247 15 207
0.613315 0.134465 0.089530 156 34 23
0.920789 0.017484 0.952678 235 4 243
0.365945 0.304910 0.874802 93 78 223
0.016873 0.120583 0.829543 4 31 212
0.512639 0.663257 0.978396 131 169 249
0.891301 0.076703 0.804762 227 20 205
0.094776 0.470434 0.513101 24 120 131
0.523444 0.526544 0.881698 133 134 225
0.587142 0.123235 0.188867 150 31 48
0.398657 0.064377 0.214648 102 16 55
0.593166 0.731655 0.182112 151 187 46
0.290284 0.233776 0.370854 74 60 95
0.476762 0.184383 0.836174 122 47 213
0.111503 0.090252 0.092542 28 23 24
0.123300 0.084472 0.808753 31 22 206
0.777405 0.715993 0.289835 198 183 74
0.655618 0.574848 0.800515 167 147 204
0.611650 0.350120 0.856497 156 89 218
0.270640 0.598831 0.555609 69 153 142
0.474821 0.527095 0.045267 121 134 12
0.236372 0.919478 0.660989 60 234 169
0.102072 0.555156 0.271154 26 142 69
0.947540 0.176199 0.386630 242 45 99
0.831924 0.122637 0.020855 212 31 5
0.442146 0.802947 0.681524 113 205 174
0.487516 0.592885 0.211509 124 151 54
0.234059 0.294149 0.086401 60 75 22
0.507352 0.524251 0.266536 129 134 68
0.834295 0.609121 0.900604 213 155 230
0.064176 0.653852 0.037950 16 167 10
0.920792 0.806904 0.233064 235 206 59
0.762752 0.883375 0.951077 195 225 243
0.211600 0.519449 0.186496 54 132 48
0.756591 0.799462 0.725020 193 204 185
0.990760 0.581047 0.342234 253 148 87
0.651704 0.336528 0.861807 166 86 220
0.387401 0.661188 0.519644 99 169 133
0.395062 0.200797 0.723331 101 51 184
0.906443 0.552051 0.111343 231 141 28
0.589330 0.136461 0.239192 150 35 61
0.927807 0.671010 0.339227 237 171 87
0.232350 0.920764 0.263737 59 235 67
0.434499 0.062691 0.498766 111 16 127
0.494952 0.094641 0.059440 126 24 15
0.367568 0.522514 0.300242 94 133 77
0.650819 0.636199 0.468070 166 162 119
0.216767 0.931890 0.778295 55 238 198
0.834464 0.711454 0.356181 213 181 91
0.137205 0.903839 0.364844 35 230 93
0.072385 0.184504 0.111559 18 47 28
0.113438 0.407661 0.953428 29 104 243
0.557635 0.045879 0.782185 142 12 199
0.299646 0.999529 0.069748 76 255 18
0.010579 0.702925 0.295541 3 179 75
0.153661 0.842776 0.750064 39 215 191
0.571860 0.946814 0.154044 146 241 39
0.109911 0.841435 0.644835 28 215 164
0.714768 0.153975 0.786592 182 39 201
0.825936 0.757231 0.404103 211 193 103
0.657217 0.026936 0.992659 168 7 253
0.260145 0.759480 0.920473 66 194 235
0.996828 0.159976 0.998425 254 41 255
0.935097 0.847064 0.607843 238 216 155
0.782103 0.642273 0.347111 199 164 89
0.592171 0.323011 0.109596 151 82 28
0.293716 0.780222 0.884334 75 199 226
0.609980 0.011846 0.886931 156 3 226
0.091129 0.365140 0.937114 23 93 239
0.261649 0.682066 0.542140 67 174 138
0.450822 0.421828 0.856949 115 108 219
0.256442 0.046880 0.494890 65 12 126
0.226406 0.384391 0.753610 58 98 192
0.013290 0.303578 0.249566 3 77 64
0.203837 0.992336 0.982500 52 253 251
0.548927 0.686759 0.563895 140 175 144
0.903367 0.820873 0.844309 230 209 215
0.683811 0.880918 0.632456 174 225 161
0.355584 0.607173 0.530004 91 155 135
0.263754 0.473011 0.957323 67 121 244
0.855253 0.254106 0.285469 218 65 73
0.131263 0.402967 0.125265 33 103 32
0.321175 0.752849 0.868815 82 192 222
0.224075 0.551314 0.799307 57 141 204
0.220886 0.304170 0.402406 56 78 103
0.851814 0.433776 0.962606 217 111 245
0.109461 0.479788 0.457585 28 122 117
0.722652 0.794477 0.993009 184 203 253
0.985238 0.320441 0.258101 251 82 66
0.422712 0.891886 0.667469 108 227 170
0.647648 0.649090 0.646045 165 166 165
0.951986 0.099599 0.693020 243 25 177
0.199058 0.639302 0.925942 51 163 236
0.361917 0.137217 0.169009 92 35 43
0.365168 0.241408 0.028845 93 62 7
0.188869 0.581626 0.704713 48 148 180
0.243987 0.617977 0.668991 62 158 171
0.506002 0.389737 0.962567 129 99 245
0.730810 0.117551 0.729395 186 30 186
0.433946 0.373184 0.368562 111 95 94
0.396561 0.601239 0.364530 101 153 93
0.303703 0.571636 0.631600 77 146 161
0.439301 0.480625 0.234789 112 123 60
0.134984 0.734491 0.968802 34 187 247
0.184252 0.330363 0.080815 47 84 21
0.555163 0.522060 0.452595 142 133 115
0.263959 0.918570 0.545548 67 234 139
0.483895 0.628635 0.731936 123 160 187
0.089470 0.845854 0.510123 23 216 130
0.934828 0.615237 0.324430 238 157 83
0.206773 0.542547 0.733938 53 138 187
0.322344 0.121168 0.872671 82 31 223
0.379248 0.516692 0.946672 97 132 241
0.590630 0.939103 0.167198 151 239 43
0.840399 0.155068 0.037819 214 40 10
0.478461 0.743386 0.788929 122 190 201
0.542868 0.332110 0.804056 138 85 205
0.962059 0.586795 0.351564 245 150 90
0.258162 0.979953 0.116522 66 250 30
0.266913 0.126639 0.159852 68 32 41
0.851850 0.072042 0.503602 217 18 128
0.025512 0.142428 0.478203 7 36 122
0.531428 0.987851 0.145568 136 252 37
0.193129 0.174785 0.983005 49 45 251
0.292476 0.331922 0.137180 75 85 35
0.990599 0.063306 0.848792 253 16 216
0.677558 0.605255 0.952251 173 154 243
0.685931 0.577663 0.996705 175 147 254
0.870654 0.343892 0.030147 222 88 8
0.252872 0.434108 0.609198 64 111 155
0.026620 0.018913 0.852525 7 5 217
0.895446 0.781861 0.775666 228 199 198
0.399556 0.558840 0.024739 102 143 6
0.313115 0.834923 0.458548 80 213 117
0.706313 0.735122 0.114348 180 187 29
0.829885 0.299548 0.105385 212 76 27
0.454791 0.402700 0.703478 116 103 179
0.657060 0.465054 0.694137 168 119 177
0.366426 0.133899 0.016840 93 34 4
0.996683 0.029826 0.293539 254 8 75
0.196438 0.381774 0.559506 50 97 143
0.648882 0.604872 0.122663 165 154 31
0.055702 0.567479 0.498189 14 145 127
0.306818 0.249709 0.931409 78 64 238
0.364832 0.741795 0.058530 93 189 15
0.457698 0.244674 0.598415 117 62 153
0.127597 0.703811 0.362600 33 179 92
0.848270 0.636295 0.587054 216 162 150
0.936913 0.406775 0.721082 239 104 184
0.567035 0.945367 0.732506 145 241 187
0.280667 0.400720 0.736624 72 102 188
0.342560 0.839610 0.362611 87 214 92
0.605278 0.883488 0.946581 154 225 241
0.402260 0.176806 0.404437 103 45 103
0.390949 0.446814 0.752870 100 114 192
0.452196 0.068872 0.859999 115 18 219
0.681698 0.599172 0.173358 174 153 44
0.215802 0.564975 0.871579 55 144 222
0.342062 0.903404 0.005355 87 230 1
0.697142 0.039514 0.482811 178 10 123
0.923446 0.144937 0.471223 235 37 120
0.686513 0.146510 0.460489 175 37 117
0.636674 0.556407 0.005431 162 142 1
0.719051 0.850163 0.991366 183 217 253
0.369577 0.106239 0.362612 94 27 92
0.629246 0.349642 0.281650 160 89 72
0.667573 0.451314 0.722167 170 115 184
0.099772 0.283015 0.301732 25 72 77
0.219148 0.917657 0.370630 56 234 95
0.161846 0.141184 0.943343 41 36 241
0.201089 0.892517 0.946591 51 228 241
0.855247 0.297819 0.349634 218 76 89
0.556594 0.351412 0.741098 142 90 189
0.437525 0.025379 0.634576 112 6 162
0.444479 0.853061 0.884335 113 218 226
0.136800 0.750275 0.122321 35 191 31
0.152724 0.480785 0.382464 39 123 98
0.772403 0.194165 0.433567 197 50 111
0.978437 0.806083 0.426143 250 206 109
0.428694 0.624206 0.572657 109 159 146
0.501952 0.169311 0.073617 128 43 19
0.998041 0.832653 0.690434 255 212 176
0.397990 0.019383 0.115094 101 5 29
0.714416 0.475465 0.571082 182 121 146
0.583858 0.839973 0.452983 149 214 116
0.933567 0.721612 0.039495 238 184 10
0.682681 0.877109 0.976430 174 224 249
0.929194 0.070306 0.379561 237 18 97
0.200532 0.419380 0.813545 51 107 207
0.946039 0.648753 0.653063 241 165 167
0.429242 0.615154 0.646045 109 157 165
0.214038 0.466352 0.310672 55 119 79
0.299302 0.080008 0.180049 76 20 46
0.082233 0.064340 0.135193 21 16 34
0.238655 0.872433 0.268251 61 222 68
0.300357 0.732424 0.596300 77 187 152
0.530898 0.938114 0.172109 135 239 44
0.107081 0.422100 0.905505 27 108 231
0.469468 0.830158 0.966128 120 212 246
0.630858 0.995746 0.321007 161 254 82
0.857893 0.530960 0.769424 219 135 196
0.747231 0.196986 0.938042 191 50 239
0.163445 0.064473 0.101550 42 16 26
0.034329 0.064580 0.484448 9 16 124
0.346354 0.850531 0.158903 88 217 41
0.812549 0.144662 0.566425 207 37 144
0.969923 0.054010 0.856415 247 14 218
0.499466 0.731687 0.304793 127 187 78
0.392753 0.598007 0.876827 100 152 224
0.505875 0.672354 0.718874 129 171 183
0.716483 0.420267 0.576571 183 107 147
0.925151 0.042741 0.426517 236 11 109
0.063508 0.539420 0.351967 16 138 90
0.373953 0.809180 0.187762 95 206 48
0.720227 0.301242 0.745899 184 77 190
0.421925 0.081162 0.155588 108 21 40
0.371846 0.132087 0.077166 95 34 20
0.159931 0.862735 0.525348 41 220 134
0.637802 0.120972 0.970239 163 31 247
0.318153 0.640625 0.444562 81 163 113
0.328493 0.422493 0.626178 84 108 160
0.126191 0.198154 0.876149 32 51 223
0.261694 0.548495 0.277612 67 140 71
0.919472 0.849088 0.200822 234 217 51
0.274617 0.603235 0.005212 70 154 1
0.723360 0.934315 0.044054 184 238 11
0.835710 0.738608 0.902811 213 188 230
0.150193 0.460171 0.251670 38 117 64
0.014208 0.667288 0.316438 4 170 81
0.823565 0.087231 0.958030 210 22 244
0.543802 0.130372 0.928397 139 33 237
0.927047 0.292140 0.839501 236 74 214
0.080407 0.933232 0.592394 21 238 151
0.357697 0.990414 0.688720 91 253 176
0.207009 0.939790 0.446728 53 240 114
0.644345 0.749801 0.987354 164 191 252
0.594878 0.231425 0.424657 152 59 108
0.894521 0.493867 0.668634 228 126 171
0.423453 0.943093 0.389325 108 240 99
0.289895 0.514152 0.767982 74 131 196
0.530725 0.928359 0.162146 135 237 41
0.478589 0.537833 0.270995 122 137 69
0.244718 0.539242 0.831936 62 138 212
0.951787 0.876579 0.680733 243 224 174
0.208459 0.749030 0.247703 53 191 63
0.529986 0.902307 0.879336 135 230 224
0.706759 0.708119 0.558948 180 181 143
0.070899 0.280393 0.323468 18 72 82
0.522661 0.446851 0.922757 133 114 235
0.068735 0.179967 0.951365 18 46 243
0.578429 0.123438 0.382763 147 31 98
0.761044 0.738632 0.355398 194 188 91
0.891303 0.516176 0.069869 227 132 18
0.888325 0.947202 0.413928 227 242 106
0.666310 0.076411 0.356761 170 19 91
0.413175 0.743096 0.519773 105 189 133
0.379368 0.187670 0.916930 97 48 234
0.588484 0.875555 0.531170 150 223 135
0.308468 0.051948 0.181279 79 13 46
0.683221 0.710352 0.337941 174 181 86
0.013122 0.875008 0.465323 3 223 119
0.142006 0.407703 0.684193 36 104 174
0.337520 0.405834 0.940018 86 103 240
0.049788 0.579460 0.879249 13 148 224
0.663410 0.505328 0.718410 169 129 183
0.549021 0.786837 0.450412 140 201 115
0.955833 0.363096 0.981176 244 93 250
0.126753 0.003847 0.652181 32 1 166
0.079585 0.400136 0.969457 20 102 247
0.368756 0.577447 0.892135 94 147 227
0.564429 0.762135 0.228508 144 194 58
0.188391 0.223279 0.925065 48 57 236
0.425668 0.356712 0.846654 109 91 216
0.207939 0.775342 0.445415 53 198 114
0.390836 0.097978 0.540574 100 25 138
0.459985 0.659433 0.474253 117 168 121
